0.9036983929;0.0909273759;0.1023285219
0.3124878646;0.0410720259;0.1842934025
0.2976975883;0.0418519819;0.3579868718
0.3429144126;0.8535131032;0.4170699019
0.6316490910;0.7969482139;0.4189879415
0.8926012552;0.1734545863;0.6172740275
0.1055445365;0.7081417465;0.8792250072
0.5433894244;0.0780533887;0.0297798912
0.6622465834;0.4302902977;0.4579164467
0.4801636291;0.3845209562;0.4993055041
0.3011327910;0.5149827876;0.1016672880
0.8573875128;0.4594005676;0.4114259224
0.0483954685;0.5557458923;0.7716067556
0.9514956064;0.4827446718;0.7158895768
0.4994383703;0.4609906016;0.1603336155
0.1310536340;0.6331201629;0.0414161021
0.4185156529;0.5111340606;0.0160888366
0.1759067313;0.2544672235;0.1718646494
0.5821228843;0.7939384160;0.6542468776
0.2038729364;0.4315365170;0.7472815611
0.8002167718;0.2994553354;0.8051860616
0.9714322933;0.1060359226;0.3328164995
0.9829387960;0.1239128880;0.0840196307
0.5961228147;0.3090202617;0.7921672175
0.3678608649;0.8499523935;0.1009736352
0.3684457341;0.1635569140;0.0350807175
0.8554377537;0.3262618008;0.6408871048
0.8741777522;0.0100707021;0.8070850575
0.6655510080;0.8244534893;0.1713237742
0.1010592130;0.1251582577;0.4702529003
0.1604199841;0.0980606813;0.7571022969
0.0014031757;0.6901446182;0.3052529646
0.9927440504;0.4393957147;0.6505977827
0.8099478976;0.5772797496;0.7901050435
0.8027290118;0.0699971289;0.7972306741
0.0306427717;0.6596646094;0.7550939226
0.2641638367;0.9980770140;0.4296683229
0.4418503519;0.4545467915;0.9209146465
0.9061888830;0.0574520228;0.2801403648
0.0949013325;0.6138734222;0.5100524400
0.4757981187;0.3542776897;0.6099901304
0.2658001128;0.7898984748;0.1259377552
0.0353521712;0.3496773223;0.9440298411
0.2984444540;0.6421088557;0.8211531342
0.1795557495;0.6739536986;0.0555620559
0.8026566027;0.5228433620;0.8494806160
0.4464563038;0.7661114595;0.1256534500
0.5601318464;0.3835015386;0.4597530316
0.5919978281;0.2878460328;0.1975954788
0.3838604955;0.5846372991;0.1366806603
0.5903890369;0.6047949490;0.6146200973
0.5508655895;0.4235095255;0.2907887939
0.7034523128;0.3855195444;0.4540524861
0.2609697534;0.3177069833;0.7949469057
0.0667436776;0.7054283066;0.5764221307
0.0742809549;0.5499389346;0.8600894691
0.3163008460;0.2519212516;0.8412173391
0.8944210416;0.5529247714;0.4646042170
0.7658171047;0.2727182326;0.6068028358
0.6035005496;0.0210124060;0.2357454585
0.6044251557;0.5659279099;0.2741089780
0.2446102743;0.8019673163;0.5176907097
0.4010826299;0.9577477956;0.2873594112
0.0058439938;0.4962897058;0.3727303213
0.3093606809;0.4119783275;0.4053661625
0.0454090872;0.6018690974;0.9697325162
0.9767371776;0.8845875769;0.9787338634
0.9423143068;0.6875350769;0.3527125865
0.1534620324;0.7931458284;0.5654888506
0.1262006537;0.1677202665;0.3831619646
0.5948356643;0.4216773102;0.1145217061
0.0937677419;0.5211512527;0.9560488059
0.6023725983;0.3010782177;0.0183341731
0.0304407043;0.7983993267;0.0777067057
0.1455147404;0.8972264139;0.4931802277
0.9082253861;0.3833906689;0.2082650059
0.5827563439;0.6524294404;0.4739096711
0.0685964522;0.7482096277;0.2887105822
0.4201629267;0.0859838887;0.0931767723
0.6165240909;0.6186259201;0.7454163142
0.3548968991;0.8417697016;0.7380282965
0.4498331696;0.8998743465;0.7779762143
0.0967196309;0.4752369802;0.6920495207
0.7827302376;0.7517001158;0.8427226678
0.4488552223;0.1687279920;0.2842205799
0.3575561788;0.2749153878;0.0037987382
0.2622555176;0.3137326998;0.0805323801
0.2173173166;0.0233741872;0.6963645418
0.3765894600;0.8729642405;0.1820868222
0.6776474929;0.3467626139;0.7996358315
0.2633677484;0.9663441959;0.6016934950
0.5896915586;0.0838914129;0.2368204844
0.6681004626;0.6912859893;0.8988526664
0.9990176575;0.5739771233;0.0275223814
0.0787786066;0.0463154338;0.8666273813
0.1872410816;0.4849983393;0.5221062978
0.2789442502;0.3802571758;0.5507608004
0.5531434755;0.0960046518;0.4189924641
0.8604687533;0.5447666840;0.1369990332
0.4691121392;0.4637044059;0.3809761284
0.9275836928;0.1876619303;0.8569553133
0.2204474790;0.0395313362;0.4013163377
0.9293778854;0.4267450972;0.2561530519
0.6279781424;0.6576485753;0.6499569817
0.8567294328;0.3224254000;0.4728302210
0.3053955912;0.1886720441;0.6795391875
0.8604602834;0.3402330224;0.0960666404
0.8793613600;0.0594351082;0.1930965186
0.5047873091;0.0457319456;0.0723259898
0.2001941671;0.1751872729;0.1219182461
0.5290488717;0.7969120692;0.9715642624
0.3960891947;0.2457833444;0.4379035185
0.1285851521;0.1175139896;0.5001612570
0.1051579912;0.1899710908;0.1285143614
0.2415656981;0.3546227612;0.3542022100
0.8085542241;0.0718076015;0.5593546279
0.8370352310;0.2474767562;0.5051996714
0.1745305006;0.6088104136;0.4923062629
0.7347471833;0.1126801954;0.2683056538
0.5334451566;0.0446821398;0.6274091776
0.6081487766;0.9871088922;0.9054630519
0.9889342279;0.7230935829;0.7405008714
0.4876484001;0.1986178649;0.6107249404
0.9032748376;0.6974798148;0.7191998014
0.8732339967;0.8120885829;0.5032652375
0.7609923990;0.6951855506;0.9771176511
0.0660501444;0.5697710381;0.1581319910
0.7652991950;0.6138098904;0.4103957455
0.2303250720;0.6172808677;0.2890315816
0.3226679937;0.0008499134;0.2056413206
0.5355545371;0.1738072408;0.1499269686
0.0069223426;0.2581617690;0.7167287594
0.6602621182;0.1912659897;0.1832594665
0.7857121798;0.5980416556;0.7243659003
0.5224130639;0.5638004356;0.6989658482
0.4061212170;0.2800654872;0.8936554616
0.9566546794;0.3673141541;0.1074837862
0.4386455871;0.4610699526;0.9238498476
0.4312385699;0.4434657816;0.6152497655
0.5096880897;0.9861507600;0.7550911543
0.1649207755;0.3187023535;0.1122286173
0.5838542087;0.8595588163;0.0260211117
0.0222318363;0.3189556028;0.9124545533
0.8723844837;0.8026743576;0.6843909409
0.8455966759;0.9772972851;0.2102370339
0.9138742185;0.2851734152;0.1585284491
0.6474008763;0.4350745222;0.4741483784
0.7978479391;0.5071316670;0.9244632214
0.4650044059;0.4263850819;0.1903643928
0.1310313992;0.8251065795;0.2286555356
0.2066333376;0.8567914805;0.8187446795
0.2933019669;0.3144477837;0.3461010148
0.8523886166;0.9790850027;0.3392156568
0.2297441246;0.2042098938;0.9646816154
0.1558426544;0.6284520405;0.3788216214
0.0593725758;0.6293295017;0.2987124063
0.3045132835;0.4820717620;0.2607860283
0.2454983958;0.2473743550;0.9422953708
0.5299536385;0.4986124240;0.6425523077
0.0857326117;0.0618888862;0.1653242190
0.0619702094;0.0483026836;0.1695175350
0.8162177465;0.0383729571;0.3757482391
0.2865849429;0.6342817103;0.8644647870
0.1553572715;0.2091827694;0.8130806542
0.5458831017;0.4409547725;0.1430534100
0.0356267235;0.0527452829;0.3559422909
0.1846076468;0.9868009101;0.7134204921
0.0015292101;0.9704022351;0.2898548741
0.5485330935;0.9418817278;0.2961708514
0.6221179938;0.8187436625;0.6943629663
0.5920988323;0.6430157222;0.7009847061
0.7951450360;0.7113079235;0.1243133088
0.8110475950;0.8026564749;0.0146618644
0.5697388333;0.1070496870;0.3067363734
0.4804147590;0.4959633991;0.6858690717
0.5579264897;0.2090804515;0.0461345602
0.8332706415;0.6660103747;0.2848870324
0.8835886865;0.9914680029;0.8275923703
0.1408298677;0.1831434062;0.1027992695
0.4402680256;0.2350829975;0.9968603828
0.9800889958;0.6324160368;0.4215245969
0.9990508407;0.5721811823;0.9024889313
0.8309439779;0.8944301134;0.0997554020
0.3895641335;0.0181171692;0.4821382522
0.8126823839;0.0587870145;0.5876149344
0.2377299861;0.3645480852;0.1888041397
0.3770657499;0.2986885037;0.4305334737
0.6995623591;0.3372690951;0.7213927481
0.2233467793;0.0033743916;0.5399473722
0.0587175796;0.5488096726;0.1762757936
0.6983182189;0.2183141656;0.0053249658
0.1143076636;0.2724818510;0.4557438817
0.9293837649;0.1030456272;0.3203307059
0.4853955811;0.7773193307;0.5939361615
0.0654195909;0.7970546774;0.2732684684
0.0526831105;0.5921305983;0.5772735703
0.9353020418;0.4609139726;0.1270201542
0.2357347963;0.2873758486;0.8799991311
0.7454123325;0.3890027606;0.3665174513
0.2902899070;0.0847683276;0.0561497389
0.8490199869;0.3023678973;0.8223658362
0.4791720748;0.6395248048;0.3304838915
0.9860439902;0.3317836452;0.7602428034
0.8782198778;0.3690586347;0.2889187629
0.9263415928;0.8848291036;0.7585369302
0.7962799567;0.6822210207;0.8920687646
0.0771871299;0.5569161752;0.4896759746
0.0375861110;0.8368815993;0.4028648673
0.8918972170;0.5195005495;0.9036099801
0.4105610447;0.9777064017;0.7414317089
0.2568343541;0.7131040711;0.9717968825
0.7698599686;0.0781235184;0.4350865149
0.1739114154;0.5034694079;0.1159004435
0.7330195607;0.3560659090;0.8545934886
0.9922288095;0.0603991389;0.1552532022
0.5153188241;0.7775542975;0.8464006845
0.9659222924;0.5988107679;0.0773791096
0.7706864717;0.2310108166;0.6503771865
0.4726394166;0.4527792516;0.5827547738
0.9806103963;0.1513454938;0.1161509945
0.2440966497;0.1686977047;0.1037380764
0.4448756960;0.4766903412;0.5482640492
0.9902134646;0.1052279146;0.7925641000
0.9768508038;0.0110472918;0.8373763087
0.1351466909;0.8957762977;0.4170699336
0.6684854188;0.8461313585;0.2912629387
0.1978297530;0.1850029107;0.7084718688
0.6595702134;0.4491957879;0.6270141254
0.7504748906;0.9462212786;0.3293569336
0.1343812569;0.5838755931;0.5395893674
0.6634450814;0.3047901666;0.2726195255
0.9927448330;0.1549664109;0.0491411957
0.4485261661;0.1067820417;0.6165332008
0.5135869889;0.3745151503;0.5565626274
0.4307281903;0.1895941314;0.4142741217
0.8809121892;0.0476175695;0.9825786449
0.4537025717;0.9969611738;0.9637789788
0.4603669902;0.3389093902;0.9103965904
0.9690348070;0.2558238375;0.2008787564
0.6340668559;0.9129114490;0.6137948403
0.1826352498;0.6731555127;0.6840296632
0.8488148402;0.3785174879;0.9292321812
0.2868900013;0.2357113040;0.9014678561
0.4828993680;0.7488314431;0.1501864553
0.8165593114;0.1699624794;0.3384091457
0.8103890320;0.6010832395;0.3069267951
0.4797038639;0.7194508087;0.8560055365
0.8807440173;0.0898716283;0.4812287840
0.8795365742;0.6845017048;0.8367382267
0.0101223680;0.0880510112;0.8466369031
0.8926708141;0.2316443038;0.8818996548
0.9521322277;0.4087173742;0.0378876807
0.0774231720;0.3614778731;0.4322402016
0.8428958646;0.3439147543;0.5662075522
0.7147504058;0.0366960738;0.0178541121
0.4282109922;0.0247921580;0.7414285039
0.4153354925;0.8374760521;0.9100521375
0.2615163055;0.1188135993;0.5145659714
0.4588792856;0.1705620689;0.6784039297
0.0843483824;0.8339616483;0.8952825873
0.8593224795;0.3964042051;0.9354721555
0.8159215025;0.5542475366;0.3041631672
0.7654965533;0.6349949199;0.4722770299
0.2142324948;0.3859975436;0.4186561441
0.0003404522;0.9039687822;0.5138368385
0.5461619602;0.5960466897;0.6664285407
0.0675935609;0.8758213127;0.4486770970
0.6477008559;0.2955063502;0.5643837448
0.9820128388;0.2411901374;0.1368987504
0.0392414115;0.1646705777;0.3661663987
0.7159041682;0.5881663915;0.1920832499
0.9754093599;0.2540594124;0.3161889509
0.4348203886;0.1070974272;0.1811251302
0.5259951615;0.0700894387;0.7689973591
0.4552413559;0.2955412817;0.5362809203
0.0990087684;0.9659909639;0.1365836386
0.7890922701;0.9223553311;0.0525436361
0.9921611464;0.9709939851;0.3382498359
0.0484513301;0.3101990709;0.7514621056
0.7864042948;0.9612738645;0.3071447635
0.1509797262;0.7958004747;0.7511164899
0.5328054262;0.0052238371;0.7364683252
0.4599584383;0.2635526160;0.1583048361
0.1581546923;0.1793992151;0.2045120900
0.7780464015;0.6058947017;0.8893368140
0.7697692449;0.3933401950;0.8219712990
0.9358163910;0.5494255660;0.5183593763
0.6946868910;0.2667564525;0.3807349939
0.2578610742;0.3762204663;0.9197107300
0.6924724466;0.2670060833;0.8358475531
0.8359213465;0.4415848690;0.0142182410
0.0817089598;0.5721970663;0.4367144523
0.3074360550;0.0506661437;0.2895185508
0.2399251189;0.4457246661;0.6940438549
0.2820122373;0.5768294397;0.8440252351
0.2722393792;0.8933921222;0.5953626256
0.7792790811;0.2201466260;0.0066414544
0.7708517653;0.5246535743;0.5585624123
0.1357174214;0.0911249456;0.1844533542
0.5484502910;0.1107965307;0.7982173951
0.4620616300;0.2190029632;0.3724300613
0.6853569111;0.6949106568;0.2956935254
0.3729787313;0.5204387207;0.8880059794
0.1925549175;0.9174387106;0.2153060135
0.2375908854;0.2562157412;0.6659706671
0.1138619153;0.0162719810;0.5335342401
0.1241421945;0.2252790129;0.3346301638
0.9909190450;0.0276793477;0.9364268777
0.0815068358;0.3154519771;0.2023102363
0.8953011187;0.7481354637;0.9390857365
0.1641712226;0.1400609855;0.8664507973
0.0134357697;0.7289195202;0.0956369669
0.2550464314;0.5202426965;0.1109212956
0.9834254035;0.0462368156;0.4653562145
0.5911885106;0.6024031072;0.3833725441
0.5734302403;0.4251249270;0.0199776606
0.3445708538;0.9400666372;0.3868047969
0.5930964045;0.1099290452;0.0132238905
0.4763351184;0.3807241828;0.0120824609
0.8772901226;0.6249755028;0.5997954642
0.0430585324;0.5390004688;0.1575764410
0.5806184794;0.3309037919;0.8632005082
0.2792271697;0.6598444470;0.6332609575
0.4955780508;0.3833836613;0.2234389459
0.5798555552;0.7141545110;0.8075222581
0.2953815970;0.2629848024;0.3664545052
0.7659664058;0.7642863282;0.9006961236
0.3067930714;0.8388270859;0.8431147063
0.7058060505;0.0955016706;0.9723345603
0.4434240729;0.2131201248;0.8775255964
0.7968580863;0.8986964035;0.6035589255
0.5815910731;0.6859644734;0.6073203904
0.2385516190;0.1270673461;0.7418452589
0.9739582421;0.0718176638;0.7482191070
0.3444101052;0.3795717737;0.7616275049
0.7364075655;0.9430789920;0.7241271114
0.2563314384;0.1136136352;0.4065715994
0.9346774863;0.4732826713;0.7354971352
0.1434556497;0.4989021916;0.2228712981
0.6714843446;0.1810132101;0.3815183402
0.8261079601;0.9445809672;0.9305537900
0.6098216161;0.4825387835;0.9310159327
0.7886434312;0.7712008518;0.7561809317
0.6419585675;0.1004596038;0.9533003439
0.7492994304;0.1880501517;0.7623074010
0.7511077424;0.8492802810;0.6231850358
0.1243483766;0.4513514510;0.2343286906
0.8948696093;0.3005085376;0.7679755483
0.7595652863;0.6619964916;0.4861557840
0.4383604343;0.1908631807;0.4701286257
0.4830820486;0.9953894144;0.6245101213
0.5615102842;0.1058682235;0.0490418910
0.2281701686;0.8158913520;0.3657274769
0.0728292443;0.4424248940;0.1171007893
0.4430984075;0.3573510038;0.5345419709
0.0678477982;0.4163802605;0.5948961941
0.4737358388;0.4704230488;0.8139711660
0.4367045154;0.2565394313;0.3785735920
0.3802998472;0.8352679254;0.2460009079
0.5251622141;0.0078116330;0.6102114638
0.9321500708;0.3529472866;0.1085015433
0.9978579406;0.1936502166;0.1413655222
0.7500672580;0.3903013545;0.2432893374
0.9509723376;0.3984010579;0.3952075749
0.1311516641;0.8495905159;0.8186855979
0.7439199836;0.6533928318;0.6892277416
0.7369928655;0.5155139533;0.7415258217
0.0343144447;0.1565807769;0.0329852003
0.6954374973;0.5581534344;0.4519665548
0.9361236157;0.4839237582;0.1697706191
0.9147533094;0.7593000543;0.7677845026
0.4784652516;0.4370471404;0.0102015238
0.7112415898;0.8394432041;0.6055777832
0.6244023881;0.8573796254;0.8617974932
0.6200483201;0.7233216620;0.3643231000
0.0480002509;0.0136816437;0.7603256698
0.4073076891;0.8154423323;0.9768869216
0.1398663712;0.1317405354;0.4949716771
0.7597852484;0.2493302035;0.6914643920
0.5857090543;0.5917071378;0.1203834319
0.5893182090;0.3577472241;0.5864050446
0.8355505398;0.4611337056;0.8381115770
0.4357931106;0.9093346962;0.1597925960
0.9684420139;0.4503025005;0.1536478376
0.6879529119;0.5734590796;0.8607338103
0.0748905160;0.2037254145;0.1548077724
0.4611066425;0.7271564318;0.9148091018
0.5194234769;0.2295216154;0.5080873036
0.9370344370;0.3499997443;0.7854266143
0.7759264635;0.4981762886;0.7641030402
0.4880211418;0.4895412855;0.2133783726
0.9586767257;0.6132348480;0.6475543834
0.7317512975;0.4325835576;0.1620902646
0.7985594416;0.9746873781;0.0863044254
0.7290679771;0.5904642786;0.2551041811
0.2221374771;0.7469061229;0.9299601698
0.0210466449;0.4105535355;0.1732568566
0.1552271492;0.3269471013;0.7849568608
0.3845203221;0.8511711039;0.8810770024
0.7889687929;0.9524703256;0.7420843988
0.1001807191;0.0946264266;0.1856961870
0.4428540894;0.4536089810;0.8758478048
0.3093804064;0.9485612803;0.1074219229
0.8811443504;0.5329322872;0.1662060028
0.3532122067;0.9123873415;0.9762397867
0.6180249271;0.9037687111;0.1037038965
0.5212212589;0.4703121291;0.6049642948
0.3714631702;0.6238240920;0.2779951867
0.2419675187;0.4360634511;0.1798664453
0.8260179648;0.1418585320;0.4193664730
0.5417674888;0.4312400122;0.6755744371
0.8932980675;0.3764601393;0.6756496535
0.7034566988;0.7130719432;0.0297422723
0.6809989117;0.6858405788;0.0549110240
0.2488149230;0.6033013748;0.2461103886
0.5025359785;0.1598421899;0.7908637455
0.0286730987;0.0534065761;0.1041731504
0.7716014680;0.7035076705;0.0578503414
0.4947532384;0.0744478310;0.8914158932
0.5655091742;0.8147631578;0.1474411796
0.2200558089;0.2191508691;0.9172217239
0.6803610763;0.4432494014;0.0967622993
0.2865910899;0.7481719148;0.5552417575
0.4165268604;0.6380143678;0.2825136145
0.3104706081;0.8409360800;0.7358728819
0.6013255047;0.0701524954;0.5331472506
0.6531191837;0.2356040134;0.0247465955
0.5372075927;0.4063547322;0.4023985739
0.9935451268;0.1618216498;0.4214321701
0.4323273652;0.9827183420;0.4408165561
0.2474989486;0.1466146449;0.7628888044
0.7715102947;0.0657647866;0.8297630516
0.3137136072;0.0004283313;0.7788676072
0.7026926233;0.5298970780;0.2721042950
0.3345670723;0.2043630547;0.6266315413
0.8872418824;0.7443157269;0.3207480469
0.9427163817;0.1230719688;0.1632737037
0.2132097091;0.5431484241;0.1889251082
0.5133070877;0.0853800188;0.1185481635
0.2391497558;0.2910030255;0.8750910814
0.3384920393;0.3344357972;0.8689849975
0.0719711318;0.3580229359;0.7101261999
0.6359099722;0.2272214896;0.6077188191
0.2008145693;0.6646362331;0.0606106896
0.1968065235;0.1242828536;0.9099682380
0.0180250564;0.6433573828;0.6126166576
0.0565102433;0.6371913212;0.7802703927
0.2519667979;0.1568929393;0.6974098424
0.4036046661;0.6684344348;0.1790666544
0.4524869048;0.1091151150;0.2087384757
0.4085470224;0.2759306585;0.1559862745
0.4432749906;0.7673957643;0.2522897263
0.1356444797;0.7768696367;0.3195266376
0.9938149386;0.8898566050;0.7186462485
0.2368422406;0.4527111579;0.0806715086
0.9698050891;0.8176748297;0.5026108701
0.4475395558;0.5170202677;0.7535734470
0.8631686689;0.5351468298;0.9877944603
0.8090092850;0.1309995391;0.1415679921
0.5701802673;0.1908949201;0.0764315765
0.2928909810;0.1325786086;0.6466704373
0.5723742553;0.2826168575;0.3191560868
0.0957870445;0.4619827668;0.8515191417
0.6577741763;0.8539023608;0.6559784307
0.8981819833;0.5154527356;0.8228134762
0.0717211761;0.9495762780;0.4231566674
0.8019498046;0.2231335219;0.1988879366
0.4164109167;0.0178982624;0.7609351991
0.9407315031;0.3919561257;0.5577199346
0.6252939728;0.0825111434;0.1561080398
0.2045216120;0.4775787667;0.4351527007
0.3763256451;0.6841714505;0.8908604363
0.5247186666;0.9049230323;0.8501528219
0.7157063075;0.1472362297;0.4706390254
0.6135443539;0.8215782090;0.7171697606
0.8747296337;0.9349694066;0.9821974577
0.5606415560;0.0941411529;0.3023385857
0.1209144856;0.1120173307;0.1222510214
0.0436796729;0.5875271543;0.3079683985
0.6443570624;0.1862297934;0.4320882277
0.4114368826;0.9333995764;0.1519505757
0.6021415324;0.1759347578;0.8730880301
0.2503626273;0.3366272135;0.5495795614
0.6008223222;0.0475760713;0.8598567790
0.2048002105;0.2098039705;0.9789273856
0.1854867901;0.7110065136;0.6811229440
0.4791166961;0.3645764442;0.1251774162
0.2829775821;0.5762925462;0.2914757944
0.5840580469;0.0972975518;0.4100177245
0.5437692200;0.1271505721;0.5789731396
0.1117340963;0.8094267518;0.3679160930
0.9783607391;0.3309758817;0.1125046468
0.4437694887;0.7889370823;0.0288424614
0.5651536980;0.6714985698;0.3446368322
0.7530512644;0.3426626685;0.1143500030
0.3197768373;0.5874430546;0.0545474897
0.4727053553;0.7956851308;0.9701156809
0.4885098534;0.4321921164;0.8322377586
0.3528819288;0.2959182252;0.7447480814
0.6966411266;0.0464802451;0.1348051786
0.3423224249;0.2690306868;0.2656092369
0.1834345589;0.2188319312;0.2193031469
0.1174369753;0.0596101632;0.6627413895
0.0185671375;0.9067204218;0.1484433011
0.8036803411;0.8003898158;0.3638722582
0.6450587002;0.8825843166;0.2837611785
0.7041934328;0.4204640424;0.2977044562
0.7364700613;0.3098732214;0.3288635812
0.1548912491;0.8119544449;0.7157556508
0.6381095573;0.3447015360;0.0317054627
0.5678410786;0.7482858704;0.2132066370
0.5142848328;0.8103972116;0.7785404821
0.7088397658;0.2607504288;0.2620527619
0.7817856802;0.1409701034;0.4587366265
0.0478175179;0.1520181357;0.8736291500
0.6185060137;0.4868641489;0.9532080473
0.1273123895;0.9766674427;0.1560460144
0.4522972811;0.2911921037;0.8551864053
0.8146025398;0.1935372047;0.2018146909
0.3755217878;0.6778202434;0.3079127051
0.5176512820;0.7430905925;0.1043078647
0.9976479245;0.7906351231;0.5482606817
0.4928985632;0.3979913021;0.3520113470
0.1214272386;0.2765894573;0.4941568751
0.9102364967;0.5667618661;0.1685016844
0.7232827154;0.8759787600;0.1551293006
0.1788241603;0.8848898998;0.1505391619
0.2934982537;0.3004740109;0.8634966228
0.3766286228;0.7752487754;0.8473879175
0.9374605737;0.9333398584;0.0780928393
0.6114682204;0.6821574079;0.0039187039
0.6179691670;0.8993839393;0.9152798883
0.3801252194;0.9035459174;0.8485990213
0.5132576833;0.4526330635;0.1911396392
0.8720260522;0.9758587397;0.9026932916
0.4829395947;0.3501061532;0.2670453639
0.7655252029;0.7329751954;0.6798682783
0.2832383038;0.1791209836;0.4686512267
0.1008287015;0.5928081348;0.0411494956
0.4809826263;0.9066114654;0.4471795713
0.8674643810;0.8763661108;0.8798847468
0.7236634334;0.7881103986;0.6748518315
0.6778947263;0.9802548830;0.5707446183
0.0940564750;0.1623199252;0.3973895624
0.9811347246;0.9572744427;0.1938954993
0.9251498382;0.4989754783;0.5856223405
0.6731818762;0.5970393621;0.2200002773
0.8911762973;0.3324522772;0.3496511795
0.1991576745;0.9198756731;0.2058473918
0.5099144638;0.1321844974;0.4473977100
0.0804955146;0.0095637207;0.1885892104
0.2061983167;0.4161796302;0.7739554406
0.0611787738;0.6132823293;0.7730643112
0.5702902051;0.6616731974;0.7147967320
0.9297235628;0.9489830640;0.8465156721
0.8881330592;0.3922058708;0.8442372046
0.8516883620;0.2722170462;0.8616293593
0.4251447144;0.9665131955;0.1465226702
0.7068543158;0.4070542195;0.8763220069
0.9985744104;0.0205526755;0.6472734217
0.9569824921;0.7501430725;0.6044708745
0.0508352986;0.7017059949;0.9700765571
0.8790362511;0.2890018908;0.6780172268
0.2503535756;0.5256272467;0.3002983517
0.7089874773;0.4379956338;0.9712348540
0.4793937078;0.1500701260;0.3468182456
0.8165932860;0.2589112965;0.1693755264
0.9408734383;0.7718325308;0.9231189242
0.4993946227;0.3656810949;0.3004907273
0.0880420979;0.9438302436;0.1938670943
0.0409358495;0.6083067829;0.7702060661
0.7582860677;0.2156525733;0.7284898152
0.8951453630;0.1810375025;0.0830885914
0.1668332764;0.3773831670;0.8953852935
0.6050614677;0.0088592647;0.3167688857
0.0831987829;0.5295229948;0.7807399732
0.6656690684;0.8424584982;0.7182559967
0.7643723059;0.9580296735;0.1680543664
0.4413356613;0.9520396975;0.5061203027
0.9132586821;0.2578512011;0.7136922266
0.5832856860;0.5311859310;0.9226593382
0.1425130131;0.6301315720;0.9163367472
0.8405246261;0.6731867996;0.2679563931
0.5156605678;0.9407000211;0.6050238736
0.7135445706;0.1672588229;0.5206480547
0.5155199674;0.7906644980;0.2185618858
0.2711199453;0.9837796889;0.9920691570
0.9004498694;0.8170644330;0.9579153991
0.9305063307;0.7993564871;0.4898725818
0.1771878671;0.0205472922;0.7853275943
0.9244999258;0.9813178446;0.2567396233
0.7289163264;0.9763164764;0.8026356609
0.8511654532;0.7571297240;0.9799404731
0.4028558581;0.5626219914;0.6755230961
0.3354127203;0.7920174725;0.8484174281
0.6035055940;0.0025156829;0.3139072429
0.6452526380;0.2784847896;0.7471253487
0.4237476860;0.2313635770;0.7375646298
0.0342581018;0.2198609860;0.6163228841
0.6130526940;0.2376176160;0.5288660759
0.0723694866;0.0398418809;0.0912009617
0.1380595321;0.2451861339;0.9296041656
0.8888683025;0.2179646445;0.9949917625
0.3433773312;0.3960543139;0.8627792786
0.3307052152;0.3739050994;0.9626979130
0.6907003086;0.7620452860;0.2362820739
0.2965876432;0.0272408395;0.2559719546
0.5864300082;0.2081598238;0.5403498559
0.8922593703;0.2571611490;0.7001378996
0.7967119414;0.6332449164;0.5015853378
0.7156123987;0.1662114372;0.5399267384
0.1980218253;0.8258847605;0.6085045456
0.4330052653;0.8805795365;0.7737051402
0.2955252475;0.2577786165;0.3042010143
0.7517866327;0.6340524940;0.0813209780
0.8428688131;0.5007610039;0.7576375391
0.3080334449;0.7810114834;0.4893695534
0.3739368743;0.3626486693;0.1662472317
0.9501727047;0.6755413293;0.2974743285
0.3979754863;0.3781700771;0.4009582561
0.3778480628;0.2013500611;0.9709353411
0.8609334705;0.9829088075;0.4189728714
0.3859299077;0.8816273332;0.7397147360
0.9182987258;0.6685807660;0.9079482636
0.6823906059;0.8974583582;0.2643903589
0.2564972770;0.4517244033;0.1093725444
0.9772449887;0.7378229623;0.6944937284
0.7408109170;0.4342289554;0.2653788236
0.7434277356;0.4699424583;0.1905703017
0.2745933270;0.6807119593;0.0164821473
0.3271631822;0.4595944775;0.6248682521
0.9239504971;0.9110806582;0.9834968484
0.8082673144;0.8056699544;0.3371471837
0.6034868677;0.9803451933;0.0817589128
0.2233658957;0.6918878741;0.5607691103
0.4941447534;0.7991799667;0.0980853371
0.0610444089;0.9633166807;0.4735126489
0.1850764300;0.3265547591;0.1764399306
0.4273026445;0.5506246353;0.6587976168
0.5472983602;0.2236994004;0.9173934081
0.6740801581;0.0906608469;0.4550650466
0.7851227563;0.8087887999;0.8779605551
0.8909871273;0.0759901500;0.0762428879
0.4773399066;0.5870459217;0.7207527942
0.7131131880;0.2720246994;0.3082249823
0.5401101109;0.3658115324;0.4070909316
0.2667053851;0.5831716991;0.6252021121
0.2946287142;0.7175392685;0.1145571436
0.9445333327;0.2043174058;0.4390356024
0.3054180151;0.7221647231;0.3710338196
0.9933227283;0.0588195237;0.9904140437
0.8420446033;0.6452767380;0.3104559486
0.4523081661;0.1248445570;0.0011599270
0.4737027667;0.0071343117;0.2133386909
0.0065053812;0.7783196836;0.9230716873
0.5195070561;0.3911918692;0.1353029526
0.3674551863;0.4403926170;0.2386382929
0.2306226844;0.2089659688;0.9652696970
0.4435012152;0.9629139806;0.0318967711
0.6433369754;0.4063336656;0.2403225533
0.4455072594;0.1504910964;0.6455102998
0.0918420999;0.1566306565;0.0825105823
0.3319091681;0.2765196332;0.2528013859
0.8756636120;0.3076404847;0.3698151061
0.6444812008;0.4442683322;0.1854832064
0.0168398099;0.9546418246;0.5952340453
0.2296237845;0.5971180511;0.8646868418
0.6044067622;0.6484507486;0.1385715704
0.6479718985;0.0696574161;0.4074790684
0.8469289513;0.3648861956;0.4785970335
0.4997655843;0.3464359398;0.3837632936
0.5928448907;0.4769856347;0.7675056861
0.4049591836;0.6966966429;0.2178304143
0.6768925608;0.1469396454;0.6119823872
0.6433049960;0.3447062837;0.1817514781
0.7322061226;0.3239259419;0.1337037807
0.7688858413;0.9736932205;0.5545033865
0.6385333009;0.6574246795;0.1883321357
0.1513621875;0.5312362315;0.1110379863
0.9040688585;0.5475440267;0.4631080302
0.8718042812;0.6124562980;0.7774474099
0.9503015364;0.3339051214;0.3768836984
0.5420917771;0.1268308388;0.8907756434
0.1046246849;0.6201267179;0.7942129948
0.1662204506;0.0199097151;0.0694843338
0.1962117910;0.0178093184;0.7187649182
0.8605039639;0.6441899731;0.2372432770
0.5591242389;0.5331487007;0.6066120479
0.9728309729;0.0388279716;0.8615089157
0.4149864611;0.8609361317;0.0008891926
0.6197285071;0.4776911953;0.0654409465
0.1399090221;0.9757073039;0.1016193328
0.4198773537;0.5933769253;0.3796889411
0.4971998674;0.7298105461;0.1948572796
0.6576633808;0.1117777834;0.7395251451
0.1184688674;0.2071532801;0.0622151679
0.2864564121;0.7923328484;0.1626139721
0.1188076168;0.2777199060;0.1397001638
0.7999943885;0.6255613464;0.9255194425
0.4423526917;0.7058154841;0.3618620033
0.7272901960;0.2173137467;0.9700975523
0.4825919239;0.1533471951;0.6287623379
0.4313117528;0.2597723642;0.0480245547
0.9829504685;0.0576002235;0.8603604596
0.9963358327;0.7929902628;0.1621377694
0.5956150978;0.6502493110;0.4005605420
0.4169187910;0.9741896394;0.9178091311
0.0549354023;0.9740829515;0.4909573856
0.0751505040;0.8665865791;0.2838150238
0.4694373243;0.6237271753;0.2409032255
0.4772532147;0.2327061137;0.1700804482
0.0199892619;0.1492695583;0.3884531041
0.1325890313;0.4841532375;0.9114415105
0.2821177684;0.1764912183;0.4072150944
0.6030443501;0.3112532119;0.5532862336
0.3196057256;0.6393170385;0.9791216873
0.5746830463;0.8903638754;0.7461936102
0.6089071767;0.4963533623;0.7055197391
0.6121114054;0.6001534978;0.4929266175
0.6505076119;0.4957071098;0.9132523654
0.3321234899;0.7810342822;0.5543970305
0.1914541506;0.5366980065;0.0531034141
0.3458022486;0.6565272966;0.0509012107
0.0054378422;0.2508407580;0.0652104259
0.7689968904;0.7019901276;0.5283454697
0.6693983008;0.1979231442;0.7369083430
0.0500516513;0.0016279245;0.6693559119
0.2183155838;0.6397281864;0.0331386835
0.2523013702;0.4547445258;0.8122765207
0.5372874600;0.6356559123;0.1691574365
0.2584554537;0.0547984976;0.2232730093
0.7080947765;0.1153447569;0.7537681797
0.1794328970;0.8740424283;0.6659648781
0.6732741385;0.7751361221;0.4179929636
0.7512627151;0.4749156339;0.1784171993
0.1577505848;0.2945639316;0.6681598952
0.2958103933;0.9164423675;0.4762638846
0.9126786907;0.0376336161;0.8254640917
0.2084926301;0.9031160993;0.4720577620
0.4817968479;0.2938197644;0.5766947609
0.7769330394;0.1233935857;0.1209097555
0.1399794645;0.5889120024;0.3880021452
0.7734223366;0.1665547093;0.9402747314
0.3665559491;0.8057977586;0.5176231235
0.3031430628;0.2606869881;0.6191112073
0.8603078216;0.2783957695;0.2755485450
0.3883173948;0.1894214116;0.6171926364
0.0867578216;0.8572094614;0.6053560667
0.1757644809;0.9732209940;0.2003079204
0.9810955139;0.8273503900;0.6046541288
0.5248713791;0.0090651613;0.7195868416
0.4057576740;0.7934125580;0.7027789493
0.1018549542;0.3644871882;0.0644666020
0.7745761741;0.4543993876;0.9960194984
0.4592936751;0.3011945207;0.5200962055
0.2351052443;0.7057760239;0.6063147706
0.3852717964;0.0711733166;0.0550105531
0.9570977695;0.8076052704;0.6297928557
0.4826202627;0.9846154582;0.0975108662
0.9144744770;0.9154154351;0.4902592907
0.8274793470;0.9163420305;0.8575735179
0.8659223902;0.5713517460;0.4596482894
0.4050673206;0.8626445475;0.6229433683
0.5790373706;0.7629478980;0.9776598922
0.4949756781;0.8938975096;0.9497054857
0.2642198586;0.8650409911;0.7656822280
0.8961369834;0.3188289385;0.0525041177
0.8594185075;0.3749558125;0.9355640009
0.2628620247;0.4268020610;0.1700533356
0.7724322544;0.6583515777;0.2059427353
0.1186471307;0.3091015384;0.7168055774
0.0413826056;0.9190664669;0.4948684001
0.3634549353;0.0059198422;0.0717937720
0.3505598809;0.7273871670;0.9941703661
0.8984537417;0.2385358310;0.9954217407
0.6527547355;0.5635702179;0.9140354874
0.8335760684;0.1819233242;0.1636202848
0.3742667239;0.5239620078;0.5261974564
0.8126406578;0.5553280996;0.8182430576
0.8983727899;0.5950449359;0.1013209722
0.7594098371;0.2265705819;0.6085936125
0.1265798144;0.4003541675;0.8164844356
0.4152781870;0.9279898260;0.8941179876
0.7210191286;0.4412196534;0.6300771558
0.7308208035;0.0837358496;0.8087008144
0.9084597336;0.6815271231;0.6252309160
0.3083083413;0.0209423001;0.4753769403
0.7481044293;0.8451227536;0.5150707742
0.9699853253;0.4553615791;0.6567386108
0.9769655430;0.9407743194;0.4656418373
0.5850376874;0.4307096286;0.0362968435
0.6052119160;0.7402890509;0.6567050423
0.8352531925;0.8348938968;0.0446234863
0.1570648297;0.9668775440;0.5743575826
0.4946131109;0.1351927372;0.1090266114
0.8081107756;0.8346139388;0.3619869601
0.8536636106;0.3199555437;0.2103143161
0.6017760637;0.1756279029;0.8137095608
0.5291109021;0.3682500304;0.7369642475
0.5510722853;0.8304938832;0.1989773310
0.9155653179;0.7580931097;0.6370670026
0.3165692262;0.1565511132;0.1291171865
0.1761600555;0.5444038149;0.3135994498
0.7406771343;0.3064197187;0.3351218814
0.7948482086;0.1937910970;0.4020679141
0.3941130010;0.1452581553;0.7498185280
0.7869800058;0.0490178933;0.6584547615
0.7139152424;0.4801933246;0.2814289121
0.0827830975;0.6751109862;0.8982658482
0.5617322383;0.5365150898;0.4630928609
0.2807608671;0.6697801476;0.0657598954
0.4290313641;0.8014566002;0.8423617722
0.9802495938;0.0186103109;0.9358131826
0.4268114409;0.7609809052;0.1254631254
0.8071606045;0.9174182300;0.6853393946
0.2964778108;0.4494358598;0.3507036162
0.6668020601;0.8284701342;0.3648220991
0.6139245801;0.2756786837;0.4218591185
0.0104520881;0.8077527742;0.7881057628
0.4442809631;0.2371061446;0.5258662410
0.0486871854;0.8771930270;0.4586635288
0.3765420767;0.4920204388;0.6711450861
0.7646573786;0.8042874125;0.5271717246
0.0640732913;0.1722354749;0.9780012165
0.5464520282;0.4878078288;0.1415439317
0.6712512319;0.0683964011;0.4105328681
0.8340170296;0.9178817702;0.6712262943
0.1715523387;0.4656016669;0.0886814180
0.7992458133;0.6134537224;0.7682204881
0.6698886090;0.1917633184;0.6958912739
0.0292718507;0.0131801511;0.0269698488
0.9161132624;0.0490576349;0.2040856712
0.6849466803;0.7632601215;0.8750560845
0.9685096246;0.6980168969;0.6165748761
0.3770945224;0.4702872780;0.5962844874
0.3288718368;0.6657325570;0.7971916073
0.6011608388;0.6408605351;0.0664038034
0.5790841098;0.1905906658;0.9913586984
0.2180644836;0.7204659817;0.1481306742
0.6170614467;0.8547918834;0.9071911367
0.6840925884;0.3613598806;0.4789568321
0.6813807246;0.2696671796;0.8667351583
0.0433867366;0.2180071642;0.8921293082
0.4028397316;0.0080700561;0.5899115359
0.9344969704;0.8088567389;0.8089994391
0.8782980945;0.2265085303;0.9922817410
0.8220804988;0.1415078543;0.6388093098
0.6000347252;0.1363559021;0.0176866896
0.3455972652;0.3478636035;0.0065328991
0.1204916305;0.1485830901;0.5503793511
0.0409377268;0.3602938929;0.9379891907
0.0457182872;0.8595044050;0.9913232225
0.3311967883;0.3772456462;0.4186216373
0.6911335240;0.4807833191;0.9604922174
0.1454260342;0.0623911720;0.8735791896
0.8703187483;0.3370711795;0.8072638549
0.6205315399;0.4565472722;0.9822962211
0.9940277606;0.8273320315;0.7789169910
0.6432123922;0.7069635066;0.1107984028
0.2947152920;0.4286467961;0.3134077124
0.2454317359;0.2212175374;0.4067615615
0.5989286510;0.7983572300;0.8571606641
0.5681225138;0.1913050541;0.9569604573
0.5784173062;0.8951524612;0.1658698114
0.0410036602;0.8084078491;0.2897386139
0.6387892086;0.3818420216;0.2665122160
0.7028768313;0.8954892751;0.4581363631
0.3950724424;0.5939594620;0.5501725895
0.2633909110;0.8656584494;0.0114673765
0.3063318688;0.9750443951;0.5379777240
0.1089945048;0.1492468816;0.3118927397
0.8819616672;0.2680352409;0.2027722229
0.9656492089;0.6451449703;0.7246148870
0.4123448557;0.2695535962;0.2057345758
0.1424150189;0.4259695040;0.2774808865
0.1673004401;0.2114659359;0.3874256598
0.8742475108;0.6000888915;0.6048557233
0.4168930012;0.1050575314;0.8322806688
0.2609463242;0.6183845514;0.4979835585
0.3561465054;0.6958189861;0.4045412123
0.9400760752;0.9907294552;0.4404203703
0.9948460306;0.1072361971;0.6336317137
0.6862334125;0.7989445758;0.4313037788
0.1474078546;0.6228041173;0.7626392147
0.2533158835;0.9530621118;0.2430480590
0.4687544255;0.7709625968;0.4304317749
0.7348311653;0.6172239931;0.0586076140
0.7073314838;0.5539405452;0.5904862922
0.9716591616;0.2395581983;0.2444069161
0.4721092349;0.7219877442;0.6216107032
0.7237792487;0.9062055593;0.1041798964
0.1014984173;0.4190154929;0.7243398051
0.6887418096;0.9132151755;0.8413941737
0.8097851123;0.9166406753;0.4203697374
0.8922747332;0.0891086186;0.4975588335
0.6398700626;0.4933878722;0.9888492854
0.7391108114;0.8504752370;0.8322985372
0.7245591440;0.8434243811;0.9096477054
0.3830122921;0.2650397251;0.4258092484
0.6413804787;0.0600402557;0.4004081435
0.9922813115;0.4154686664;0.1129295453
0.2971041579;0.6898047670;0.5372365862
0.9160009419;0.5207683591;0.5346985694
0.7894625923;0.7471676477;0.4989350491
0.7844049074;0.2260999192;0.4455204997
0.0943005236;0.2020883178;0.9560503082
0.5940947080;0.8609071686;0.9749549869
0.9433707223;0.3978972126;0.1652737916
0.1879353003;0.5824723338;0.8882961796
0.9330918071;0.7237002768;0.4407551647
0.7443367996;0.6542931888;0.6539107220
0.2212277559;0.5960248119;0.4798152740
0.1953699822;0.6248017935;0.4116702647
0.0445517762;0.7681454820;0.3956389838
0.6951971295;0.0117086717;0.9379945677
0.7707940918;0.9672615632;0.1409314767
0.8062832764;0.1213745464;0.6035067746
0.3830273781;0.8413227731;0.9918145954
0.8817993540;0.9064691011;0.5609882474
0.7361979449;0.7567835669;0.9588491721
0.4460989385;0.4379266764;0.1729758880
0.1336528245;0.6408065905;0.3788602626
0.3566099814;0.4493427776;0.3484145430
0.4661669189;0.4116845138;0.0810753682
0.3194524157;0.7151792424;0.2220959154
0.1286941959;0.6338590845;0.3936031304
0.5321880937;0.0702813314;0.1960605963
0.0085202533;0.9443532188;0.8395266951
0.7949506595;0.1371403486;0.8803542393
0.9169905607;0.7686933307;0.4064391476
0.2412470984;0.9146660022;0.5411862520
0.9730930540;0.6355919714;0.5123614442
0.1724992647;0.6261706514;0.2718102029
0.1577705377;0.5361495398;0.2400992272
0.3251770680;0.9068010967;0.6661294228
0.3212404204;0.9806776820;0.4841829960
0.5481117972;0.2936950047;0.9885991619
0.7864786186;0.1604256057;0.6182858894
0.9346028188;0.9891477762;0.3957124977
0.3729337169;0.2860657924;0.4471921932
0.5788401447;0.3582330055;0.5023548204
0.6427125161;0.2789628644;0.8282816104
0.9246418126;0.9480038468;0.9947717695
0.9068878096;0.9491834736;0.4724825310
0.4317529160;0.3691764956;0.5954925370
0.9950455435;0.6174790917;0.5162104006
0.1963029924;0.2906550249;0.7556749283
0.2097629576;0.6150035450;0.7026220860
0.0564561430;0.4032074156;0.3519225010
0.2168402286;0.2014393365;0.9698216451
0.6063292362;0.8904552726;0.0133593034
0.0832374995;0.0196676994;0.6603748385
0.6673850643;0.7953044712;0.0669241578
0.9627197964;0.3879762739;0.0129779370
0.5579926812;0.3794608561;0.3992996868
0.1102604320;0.3259578598;0.4529512289
0.1658526667;0.5544779731;0.9058933778
0.2343348812;0.7020276356;0.3246798999
0.2926539726;0.3065149204;0.4203565485
0.1062354428;0.3719584545;0.2433294228
0.7246388452;0.3975084961;0.4357557365
0.3952112085;0.6759054734;0.2813035011
0.6332197787;0.1051443198;0.9596156732
0.4709594840;0.1140517018;0.2392921473
0.6794794627;0.3931727693;0.5683101235
0.9936054113;0.7746193590;0.0180854503
0.1117485780;0.5410720764;0.8560753296
0.8857515574;0.6628828397;0.2541955721
0.2011916744;0.5478019472;0.5415439467
0.1759700117;0.1696651721;0.6894092208
0.6625163798;0.1052055690;0.2072488435
0.7314907573;0.2637401239;0.1321955324
0.5862388400;0.0761925296;0.7617836576
0.6147416723;0.0109021967;0.5174250937
0.8381979443;0.3368638681;0.4564783464
0.7144833473;0.7330336050;0.0498610801
0.0938281766;0.9900927942;0.3255467757
0.3030017950;0.6920417669;0.5979949341
0.8708429829;0.2773714594;0.6029810324
0.3441686970;0.7649406293;0.2156010827
0.1380095816;0.9174691704;0.5451574842
0.1869583158;0.0049579661;0.9748194891
0.8805321903;0.7969032297;0.7615029797
0.2629711463;0.6500664457;0.7497436775
0.4296139866;0.7807525887;0.4576432915
0.7762016071;0.4574958016;0.8222556372
0.5272551733;0.8136617133;0.6023968133
0.4324265758;0.2706794514;0.4944868566
0.8166954152;0.3357430320;0.0512473099
0.3808051927;0.5335337027;0.2588994045
0.3273603445;0.6138462324;0.6919575248
0.4567814307;0.1130431964;0.2961803040
0.9468598701;0.8311871375;0.7067884723
0.2592731272;0.3350815248;0.8058070018
0.3647902689;0.3923538724;0.2985404796
0.6483822882;0.8142284871;0.2590058441
0.7755681684;0.0050951827;0.1885694476
0.0683583095;0.3568954074;0.5422091170
0.0731328182;0.7279801143;0.5648817106
0.6343033603;0.9476824283;0.8765033762
